554

6.250000 0.035720 0.250000 100
6.750000 0.035720 0.250000 100
7.250000 0.035720 0.250000 100
7.750000 0.035720 0.250000 100
8.250000 0.035720 0.250000 100
11.750000 0.035720 0.250000 100
12.250000 0.035720 0.250000 100
12.750000 0.035720 0.250000 100
13.250000 0.035720 0.250000 100
13.750000 0.035720 0.250000 100
14.250000 0.035720 0.250000 100
14.750000 0.035720 0.250000 100
15.250000 0.035720 0.250000 100
15.750000 0.035720 0.250000 100
16.250000 0.035720 0.250000 100
16.750000 0.035720 0.250000 100
17.250000 0.035720 0.250000 100
17.750000 0.035720 0.250000 100
18.250000 0.035720 0.250000 100
18.750000 0.035720 0.250000 100
19.250000 0.035720 0.250000 100
19.750000 0.035720 0.250000 100
20.000000 0.285720 0.250000 100
20.000000 0.785720 0.250000 100
20.000000 1.285720 0.250000 100
20.000000 1.785720 0.250000 100
20.000000 2.285720 0.250000 100
20.000000 2.785720 0.250000 100
20.000000 3.285720 0.250000 100
20.000000 3.785720 0.250000 100
20.000000 4.285720 0.250000 100
20.000000 4.785720 0.250000 100
20.000000 5.285720 0.250000 100
20.000000 5.785720 0.250000 100
20.000000 6.285720 0.250000 100
20.000000 6.785720 0.250000 100
20.000000 7.285720 0.250000 100
20.000000 7.785720 0.250000 100
20.000000 8.285720 0.250000 100
20.000000 8.785720 0.250000 100
20.000000 9.285720 0.250000 100
20.000000 9.785720 0.250000 100
20.000000 10.285720 0.250000 100
20.000000 10.785720 0.250000 100
20.000000 11.285720 0.250000 100
20.000000 11.785720 0.250000 100
20.000000 12.285720 0.250000 100
20.000000 12.785720 0.250000 100
20.000000 13.285720 0.250000 100
20.000000 13.785720 0.250000 100
20.000000 14.285720 0.250000 100
20.000000 14.785720 0.250000 100
20.000000 15.285720 0.250000 100
20.000000 15.785720 0.250000 100
20.000000 16.285720 0.250000 100
20.000000 16.785720 0.250000 100
20.000000 17.285720 0.250000 100
20.000000 17.785720 0.250000 100
20.000000 18.285720 0.250000 100
20.000000 18.785720 0.250000 100
20.000000 19.285720 0.250000 100
20.000000 19.785720 0.250000 100
20.000000 20.285720 0.250000 100
20.000000 20.785720 0.250000 100
20.000000 21.285720 0.250000 100
20.000000 21.785720 0.250000 100
20.000000 22.285720 0.250000 100
20.000000 22.785720 0.250000 100
20.000000 23.285720 0.250000 100
20.000000 23.785720 0.250000 100
20.000000 24.285720 0.250000 100
20.000000 24.785720 0.250000 100
20.000000 25.285720 0.250000 100
20.000000 25.785720 0.250000 100
20.000000 26.285720 0.250000 100
20.000000 26.785720 0.250000 100
20.000000 27.285720 0.250000 100
20.000000 27.785720 0.250000 100
20.000000 28.285720 0.250000 100
20.000000 28.785720 0.250000 100
20.000000 29.285720 0.250000 100
20.000000 29.785720 0.250000 100
20.000000 30.285720 0.250000 100
20.000000 30.785720 0.250000 100
20.000000 31.285720 0.250000 100
20.000000 31.785720 0.250000 100
20.000000 32.285720 0.250000 100
20.000000 32.785720 0.250000 100
20.000000 33.285720 0.250000 100
20.000000 33.785720 0.250000 100
20.000000 34.285720 0.250000 100
20.000000 34.785720 0.250000 100
20.000000 35.285720 0.250000 100
20.000000 35.785720 0.250000 100
20.000000 36.285720 0.250000 100
20.000000 36.785720 0.250000 100
20.000000 37.285720 0.250000 100
20.000000 37.785720 0.250000 100
20.000000 38.285720 0.250000 100
20.000000 38.785720 0.250000 100
20.000000 39.285720 0.250000 100
20.000000 39.785720 0.250000 100
20.000000 40.285720 0.250000 100
20.000000 40.785720 0.250000 100
20.000000 41.285720 0.250000 100
20.000000 41.785720 0.250000 100
20.000000 42.285720 0.250000 100
20.000000 42.785720 0.250000 100
20.000000 43.285720 0.250000 100
20.000000 43.785720 0.250000 100
20.000000 44.285720 0.250000 100
20.000000 44.785720 0.250000 100
20.000000 45.285720 0.250000 100
20.000000 45.785720 0.250000 100
20.000000 46.285720 0.250000 100
20.000000 46.785720 0.250000 100
20.000000 47.285720 0.250000 100
20.000000 47.785720 0.250000 100
20.000000 48.285720 0.250000 100
20.000000 48.785720 0.250000 100
20.000000 49.285720 0.250000 100
20.000000 49.785720 0.250000 100
20.000000 50.285720 0.250000 100
20.000000 50.785720 0.250000 100
20.000000 51.285720 0.250000 100
20.000000 51.785720 0.250000 100
20.000000 52.285720 0.250000 100
20.000000 52.785720 0.250000 100
20.000000 53.285720 0.250000 100
20.000000 53.785720 0.250000 100
20.000000 54.285720 0.250000 100
20.000000 54.785720 0.250000 100
20.000000 55.285720 0.250000 100
20.000000 55.785720 0.250000 100
20.000000 56.285720 0.250000 100
20.000000 56.785720 0.250000 100
20.000000 57.285720 0.250000 100
20.000000 57.785720 0.250000 100
20.000000 58.285720 0.250000 100
20.000000 58.785720 0.250000 100
20.000000 59.285720 0.250000 100
20.000000 59.785720 0.250000 100
20.000000 60.285720 0.250000 100
20.000000 60.785720 0.250000 100
20.000000 61.285720 0.250000 100
20.000000 61.785720 0.250000 100
20.000000 62.285720 0.250000 100
20.000000 62.785720 0.250000 100
20.000000 63.285720 0.250000 100
20.000000 63.785720 0.250000 100
20.000000 64.285720 0.250000 100
20.000000 64.785720 0.250000 100
20.000000 65.285720 0.250000 100
20.000000 65.785720 0.250000 100
20.000000 66.285720 0.250000 100
20.000000 66.785720 0.250000 100
20.000000 67.285720 0.250000 100
20.000000 67.785720 0.250000 100
20.000000 68.285720 0.250000 100
20.000000 68.785720 0.250000 100
20.000000 69.285720 0.250000 100
20.000000 69.785720 0.250000 100
19.750000 70.035720 0.250000 100
19.250000 70.035720 0.250000 100
18.750000 70.035720 0.250000 100
18.250000 70.035720 0.250000 100
17.750000 70.035720 0.250000 100
17.250000 70.035720 0.250000 100
16.750000 70.035720 0.250000 100
16.250000 70.035720 0.250000 100
15.750000 70.035720 0.250000 100
15.250000 70.035720 0.250000 100
14.750000 70.035720 0.250000 100
14.250000 70.035720 0.250000 100
13.750000 70.035720 0.250000 100
13.250000 70.035720 0.250000 100
12.750000 70.035720 0.250000 100
12.250000 70.035720 0.250000 100
11.750000 70.035720 0.250000 100
11.250000 70.035720 0.250000 100
10.750000 70.035720 0.250000 100
10.250000 70.035720 0.250000 100
9.750000 70.035720 0.250000 100
9.250000 70.035720 0.250000 100
8.750000 70.035720 0.250000 100
8.250000 70.035720 0.250000 100
7.750000 70.035720 0.250000 100
7.250000 70.035720 0.250000 100
6.750000 70.035720 0.250000 100
6.250000 70.035720 0.250000 100
5.750000 70.035720 0.250000 100
5.250000 70.035720 0.250000 100
4.750000 70.035720 0.250000 100
4.250000 70.035720 0.250000 100
3.750000 70.035720 0.250000 100
3.250000 70.035720 0.250000 100
2.750000 70.035720 0.250000 100
2.250000 70.035720 0.250000 100
1.750000 70.035720 0.250000 100
1.250000 70.035720 0.250000 100
0.750000 70.035720 0.250000 100
0.250000 70.035720 0.250000 100
554

13.996299 9.247240 0.850000 0
12.514327 28.334389 0.851500 0
11.784493 13.499510 0.853000 0
7.899995 58.000006 0.854500 0
16.934490 55.021716 0.856000 0
5.891631 4.610532 0.857500 0
3.495394 0.561895 0.859000 0
10.854356 56.604391 0.860500 0
2.771672 33.434186 0.862000 0
8.369979 43.754362 0.863500 0
18.965505 24.018079 0.865000 0
14.498092 40.806285 0.866500 0
15.795114 48.023703 0.868000 0
10.487558 52.148700 0.869500 0
3.377537 3.129109 0.871000 0
18.736375 40.066678 0.872500 0
13.963604 4.443075 0.874000 0
10.189324 -1.206689 0.875500 0
2.181558 14.544980 0.877000 0
7.058675 49.413262 0.878500 0
18.601017 49.848191 0.880000 0
12.265245 4.691640 0.881500 0
4.850179 49.077770 0.883000 0
1.060858 38.010037 0.884500 0
4.736398 44.204527 0.886000 0
18.225754 0.612933 0.887500 0
15.212266 58.555336 0.889000 0
16.988066 6.555854 0.890500 0
13.230683 45.654330 0.892000 0
8.933206 22.303601 0.893500 0
16.424988 25.014848 0.895000 0
18.956806 56.897185 0.896500 0
7.331804 1.943927 0.898000 0
18.902421 43.129511 0.899500 0
9.966423 9.765148 0.901000 0
1.660348 0.554290 0.902500 0
7.296869 3.432135 0.904000 0
16.041928 0.644770 0.905500 0
6.506345 27.044954 0.907000 0
17.623249 10.930482 0.908500 0
16.804087 32.381414 0.910000 0
17.362886 1.720204 0.911500 0
12.666560 24.671792 0.913000 0
10.121775 26.300070 0.914500 0
13.677007 12.978188 0.916000 0
14.456835 32.202996 0.917500 0
5.188554 17.326654 0.919000 0
1.306592 11.455773 0.920500 0
8.709190 37.672462 0.922000 0
8.338936 14.874779 0.923500 0
17.158999 30.338815 0.925000 0
10.195180 12.075994 0.926500 0
12.090759 0.348449 0.928000 0
13.428967 33.767734 0.929500 0
14.807985 5.789210 0.931000 0
3.154062 39.422138 0.932500 0
17.848405 12.499319 0.934000 0
3.000067 37.421431 0.935500 0
7.811286 31.186513 0.937000 0
17.985162 27.215789 0.938500 0
4.774568 13.589747 0.940000 0
5.480464 40.933996 0.941500 0
4.377661 12.038636 0.943000 0
14.612787 2.069325 0.944500 0
2.504530 51.603264 0.946000 0
10.855036 3.287340 0.947500 0
11.373807 31.989153 0.949000 0
18.143631 9.482302 0.950500 0
5.914093 36.383854 0.952000 0
11.875353 40.397724 0.953500 0
6.451900 33.425662 0.955000 0
1.603884 23.348450 0.956500 0
8.809023 46.632148 0.958000 0
11.889809 36.616296 0.959500 0
4.462906 5.676774 0.961000 0
17.598228 37.666939 0.962500 0
4.490891 30.063613 0.964000 0
15.776543 36.456087 0.965500 0
15.955605 27.582101 0.967000 0
5.665509 22.502283 0.968500 0
8.296163 6.689623 0.970000 0
7.428500 12.428036 0.971500 0
2.942217 54.536140 0.973000 0
1.599179 44.408951 0.974500 0
9.832554 19.128194 0.976000 0
16.135680 20.029217 0.977500 0
14.351398 50.496790 0.979000 0
15.944767 43.337819 0.980500 0
7.494896 5.159676 0.982000 0
5.884578 11.085142 0.983500 0
15.178789 56.374593 0.985000 0
4.768503 53.549914 0.986500 0
1.827300 57.019503 0.988000 0
0.842197 5.436566 0.989500 0
16.215547 9.653546 0.991000 0
15.500643 12.727344 0.992500 0
10.828140 15.932744 0.994000 0
3.647009 7.608322 0.995500 0
7.768191 52.973317 0.997000 0
11.237589 50.399747 0.998500 0
14.376676 54.015212 1.000000 0
10.540697 54.223519 1.001500 0
1.539927 26.443332 1.003000 0
12.034426 8.731289 1.004500 0
17.862785 16.265529 1.006000 0
1.856725 6.950075 1.007500 0
8.426182 35.114006 1.009000 0
11.518666 47.548381 1.010500 0
13.079255 18.214483 1.012000 0
6.278953 47.372575 1.013500 0
9.819746 40.375849 1.015000 0
13.038804 2.952743 1.016500 0
14.601526 21.749284 1.018000 0
1.333845 32.041957 1.019500 0
2.318357 1.909733 1.021000 0
10.393356 28.765968 1.022500 0
5.459131 20.480365 1.024000 0
1.520711 41.721991 1.025500 0
2.124170 12.621691 1.027000 0
11.514211 1.786783 1.028500 0
4.219339 25.314491 1.030000 0
12.089085 22.222309 1.031500 0
17.379569 45.431177 1.033000 0
8.082627 10.909115 1.034500 0
2.341256 47.415384 1.036000 0
5.292579 56.846789 1.037500 0
16.286731 3.034861 1.039000 0
1.354262 18.231206 1.040500 0
10.327193 43.803911 1.042000 0
9.128099 3.903509 1.043500 0
7.676207 24.284712 1.045000 0
6.551532 0.479681 1.046500 0
17.385405 21.623597 1.048000 0
17.219438 41.257562 1.049500 0
12.148802 58.038217 1.051000 0
18.746560 34.423342 1.052500 0
17.520359 18.529669 1.054000 0
8.109490 8.746945 1.055500 0
12.400250 42.606543 1.057000 0
5.365436 38.390024 1.058500 0
18.542680 4.257983 1.060000 0
9.991751 5.481160 1.061500 0
3.037382 28.029692 1.063000 0
1.170971 9.114723 1.064500 0
6.636007 55.073403 1.066000 0
13.903248 37.408109 1.067500 0
13.176386 6.998608 1.069000 0
15.096279 11.061824 1.070500 0
8.362718 17.590962 1.072000 0
10.680179 34.494912 1.073500 0
12.412785 53.293756 1.075000 0
16.559046 4.882024 1.076500 0
3.680732 42.060908 1.078000 0
2.674509 4.897129 1.079500 0
12.902799 55.823631 1.081000 0
17.830406 52.671317 1.082500 0
15.414313 15.761453 1.084000 0
9.234606 49.248629 1.085500 0
18.994973 2.595059 1.087000 0
4.626298 34.438952 1.088500 0
7.737062 41.756590 1.090000 0
12.598116 10.497716 1.091500 0
6.111212 9.403833 1.093000 0
13.185979 14.963107 1.094500 0
14.546983 29.270342 1.096000 0
6.594893 45.037285 1.097500 0
14.078688 0.594227 1.099000 0
1.206405 49.628211 1.100500 0
14.514933 26.083994 1.102000 0
5.803347 7.291839 1.103500 0
9.928238 24.119208 1.105000 0
1.074922 3.456613 1.106500 0
4.860613 51.195916 1.108000 0
3.247125 9.314402 1.109500 0
2.842705 20.091917 1.111000 0
17.379546 58.142104 1.112500 0
7.997107 28.641901 1.114000 0
5.023495 1.538735 1.115500 0
9.364487 1.208750 1.117000 0
8.721286 55.991914 1.118500 0
5.373633 3.130811 1.120000 0
3.992409 15.606967 1.121500 0
1.337919 29.674249 1.123000 0
18.802396 47.584089 1.124500 0
18.928524 5.903030 1.126000 0
10.299506 7.573975 1.127500 0
3.613158 58.596846 1.129000 0
15.813140 8.003505 1.130500 0
9.904691 58.483977 1.132000 0
15.626769 38.921983 1.133500 0
18.916620 7.799929 1.135000 0
18.853096 31.878163 1.136500 0
17.437004 14.244994 1.138000 0
1.155959 35.433968 1.139500 0
13.656736 48.320732 1.141000 0
7.721459 39.500920 1.142500 0
4.344601 46.278215 1.144000 0
7.926335 20.361395 1.145500 0
16.722482 50.687580 1.147000 0
9.143245 32.800288 1.148500 0
0.000000 69.892369 0.250000 100
0.000000 69.392369 0.250000 100
0.000000 68.892369 0.250000 100
0.000000 68.392369 0.250000 100
0.000000 67.892369 0.250000 100
0.000000 67.392369 0.250000 100
0.000000 66.892369 0.250000 100
0.000000 66.392369 0.250000 100
0.000000 65.892369 0.250000 100
0.000000 65.392369 0.250000 100
0.000000 64.892369 0.250000 100
0.000000 64.392369 0.250000 100
0.000000 63.892369 0.250000 100
0.000000 63.392369 0.250000 100
0.000000 62.892369 0.250000 100
0.000000 62.392369 0.250000 100
0.000000 61.892369 0.250000 100
0.000000 61.392369 0.250000 100
0.000000 60.892369 0.250000 100
0.000000 60.392369 0.250000 100
0.000000 59.892369 0.250000 100
0.000000 59.392369 0.250000 100
0.000000 58.892369 0.250000 100
0.000000 58.392369 0.250000 100
0.000000 57.892369 0.250000 100
0.000000 57.392369 0.250000 100
0.000000 56.892369 0.250000 100
0.000000 56.392369 0.250000 100
0.000000 55.892369 0.250000 100
0.000000 55.392369 0.250000 100
0.000000 54.892369 0.250000 100
0.000000 54.392369 0.250000 100
0.000000 53.892369 0.250000 100
0.000000 53.392369 0.250000 100
0.000000 52.892369 0.250000 100
0.000000 52.392369 0.250000 100
0.000000 51.892369 0.250000 100
0.000000 51.392369 0.250000 100
0.000000 50.892369 0.250000 100
0.000000 50.392369 0.250000 100
0.000000 49.892369 0.250000 100
0.000000 49.392369 0.250000 100
0.000000 48.892369 0.250000 100
0.000000 48.392369 0.250000 100
0.000000 47.892369 0.250000 100
0.000000 47.392369 0.250000 100
0.000000 46.892369 0.250000 100
0.000000 46.392369 0.250000 100
0.000000 45.892369 0.250000 100
0.000000 45.392369 0.250000 100
0.000000 44.892369 0.250000 100
0.000000 44.392369 0.250000 100
0.000000 43.892369 0.250000 100
0.000000 43.392369 0.250000 100
0.000000 42.892369 0.250000 100
0.000000 42.392369 0.250000 100
0.000000 41.892369 0.250000 100
0.000000 41.392369 0.250000 100
0.000000 40.892369 0.250000 100
0.000000 40.392369 0.250000 100
0.000000 39.892369 0.250000 100
0.000000 39.392369 0.250000 100
0.000000 38.892369 0.250000 100
0.000000 38.392369 0.250000 100
0.000000 37.892369 0.250000 100
0.000000 37.392369 0.250000 100
0.000000 36.892369 0.250000 100
0.000000 36.392369 0.250000 100
0.000000 35.892369 0.250000 100
0.000000 35.392369 0.250000 100
0.000000 34.892369 0.250000 100
0.000000 34.392369 0.250000 100
0.000000 33.892369 0.250000 100
0.000000 33.392369 0.250000 100
0.000000 32.892369 0.250000 100
0.000000 32.392369 0.250000 100
0.000000 31.892369 0.250000 100
0.000000 31.392369 0.250000 100
0.000000 30.892369 0.250000 100
0.000000 30.392369 0.250000 100
0.000000 29.892369 0.250000 100
0.000000 29.392369 0.250000 100
0.000000 28.892369 0.250000 100
0.000000 28.392369 0.250000 100
0.000000 27.892369 0.250000 100
0.000000 27.392369 0.250000 100
0.000000 26.892369 0.250000 100
0.000000 26.392369 0.250000 100
0.000000 25.892369 0.250000 100
0.000000 25.392369 0.250000 100
0.000000 24.892369 0.250000 100
0.000000 24.392369 0.250000 100
0.000000 23.892369 0.250000 100
0.000000 23.392369 0.250000 100
0.000000 22.892369 0.250000 100
0.000000 22.392369 0.250000 100
0.000000 21.892369 0.250000 100
0.000000 21.392369 0.250000 100
0.000000 20.892369 0.250000 100
0.000000 20.392369 0.250000 100
0.000000 19.892369 0.250000 100
0.000000 19.392369 0.250000 100
0.000000 18.892369 0.250000 100
0.000000 18.392369 0.250000 100
0.000000 17.892369 0.250000 100
0.000000 17.392369 0.250000 100
0.000000 16.892369 0.250000 100
0.000000 16.392369 0.250000 100
0.000000 15.892369 0.250000 100
0.000000 15.392369 0.250000 100
0.000000 14.892369 0.250000 100
0.000000 14.392369 0.250000 100
0.000000 13.892369 0.250000 100
0.000000 13.392369 0.250000 100
0.000000 12.892369 0.250000 100
0.000000 12.392369 0.250000 100
0.000000 11.892369 0.250000 100
0.000000 11.392369 0.250000 100
0.000000 10.892369 0.250000 100
0.000000 10.392369 0.250000 100
0.000000 9.892369 0.250000 100
0.000000 9.392369 0.250000 100
0.000000 8.892369 0.250000 100
0.000000 8.392369 0.250000 100
0.000000 7.892369 0.250000 100
0.000000 7.392369 0.250000 100
0.000000 6.892369 0.250000 100
0.000000 6.392369 0.250000 100
0.000000 5.892369 0.250000 100
0.000000 5.392369 0.250000 100
0.000000 4.892369 0.250000 100
0.000000 4.392369 0.250000 100
0.000000 3.892369 0.250000 100
0.000000 3.392369 0.250000 100
0.000000 2.892369 0.250000 100
0.000000 2.392369 0.250000 100
0.000000 1.892369 0.250000 100
0.000000 1.392369 0.250000 100
0.000000 0.892369 0.250000 100
0.000000 0.392369 0.250000 100
0.250000 0.142369 0.250000 100
0.750000 0.142369 0.250000 100
1.250000 0.142369 0.250000 100
1.750000 0.142369 0.250000 100
2.250000 0.142369 0.250000 100
2.750000 0.142369 0.250000 100
3.250000 0.142369 0.250000 100
3.750000 0.142369 0.250000 100
4.250000 0.142369 0.250000 100
4.750000 0.142369 0.250000 100
5.250000 0.142369 0.250000 100
5.750000 0.142369 0.250000 100
6.250000 0.142369 0.250000 100
6.750000 0.142369 0.250000 100
7.250000 0.142369 0.250000 100
7.750000 0.142369 0.250000 100
8.250000 0.142369 0.250000 100
11.750000 0.142369 0.250000 100
12.250000 0.142369 0.250000 100
12.750000 0.142369 0.250000 100
13.250000 0.142369 0.250000 100
13.750000 0.142369 0.250000 100
14.250000 0.142369 0.250000 100
14.750000 0.142369 0.250000 100
15.250000 0.142369 0.250000 100
15.750000 0.142369 0.250000 100
16.250000 0.142369 0.250000 100
16.750000 0.142369 0.250000 100
17.250000 0.142369 0.250000 100
17.750000 0.142369 0.250000 100
18.250000 0.142369 0.250000 100
18.750000 0.142369 0.250000 100
19.250000 0.142369 0.250000 100
19.750000 0.142369 0.250000 100
20.000000 0.392369 0.250000 100
20.000000 0.892369 0.250000 100
20.000000 1.392369 0.250000 100
20.000000 1.892369 0.250000 100
20.000000 2.392369 0.250000 100
20.000000 2.892369 0.250000 100
20.000000 3.392369 0.250000 100
20.000000 3.892369 0.250000 100
20.000000 4.392369 0.250000 100
20.000000 4.892369 0.250000 100
20.000000 5.392369 0.250000 100
20.000000 5.892369 0.250000 100
20.000000 6.392369 0.250000 100
20.000000 6.892369 0.250000 100
20.000000 7.392369 0.250000 100
20.000000 7.892369 0.250000 100
20.000000 8.392369 0.250000 100
20.000000 8.892369 0.250000 100
20.000000 9.392369 0.250000 100
20.000000 9.892369 0.250000 100
20.000000 10.392369 0.250000 100
20.000000 10.892369 0.250000 100
20.000000 11.392369 0.250000 100
20.000000 11.892369 0.250000 100
20.000000 12.392369 0.250000 100
20.000000 12.892369 0.250000 100
20.000000 13.392369 0.250000 100
20.000000 13.892369 0.250000 100
20.000000 14.392369 0.250000 100
20.000000 14.892369 0.250000 100
20.000000 15.392369 0.250000 100
20.000000 15.892369 0.250000 100
20.000000 16.392369 0.250000 100
20.000000 16.892369 0.250000 100
20.000000 17.392369 0.250000 100
20.000000 17.892369 0.250000 100
20.000000 18.392369 0.250000 100
20.000000 18.892369 0.250000 100
20.000000 19.392369 0.250000 100
20.000000 19.892369 0.250000 100
20.000000 20.392369 0.250000 100
20.000000 20.892369 0.250000 100
20.000000 21.392369 0.250000 100
20.000000 21.892369 0.250000 100
20.000000 22.392369 0.250000 100
20.000000 22.892369 0.250000 100
20.000000 23.392369 0.250000 100
20.000000 23.892369 0.250000 100
20.000000 24.392369 0.250000 100
20.000000 24.892369 0.250000 100
20.000000 25.392369 0.250000 100
20.000000 25.892369 0.250000 100
20.000000 26.392369 0.250000 100
20.000000 26.892369 0.250000 100
20.000000 27.392369 0.250000 100
20.000000 27.892369 0.250000 100
20.000000 28.392369 0.250000 100
20.000000 28.892369 0.250000 100
20.000000 29.392369 0.250000 100
20.000000 29.892369 0.250000 100
20.000000 30.392369 0.250000 100
20.000000 30.892369 0.250000 100
20.000000 31.392369 0.250000 100
20.000000 31.892369 0.250000 100
20.000000 32.392369 0.250000 100
20.000000 32.892369 0.250000 100
20.000000 33.392369 0.250000 100
20.000000 33.892369 0.250000 100
20.000000 34.392369 0.250000 100
20.000000 34.892369 0.250000 100
20.000000 35.392369 0.250000 100
20.000000 35.892369 0.250000 100
20.000000 36.392369 0.250000 100
20.000000 36.892369 0.250000 100
20.000000 37.392369 0.250000 100
20.000000 37.892369 0.250000 100
20.000000 38.392369 0.250000 100
20.000000 38.892369 0.250000 100
20.000000 39.392369 0.250000 100
20.000000 39.892369 0.250000 100
20.000000 40.392369 0.250000 100
20.000000 40.892369 0.250000 100
20.000000 41.392369 0.250000 100
20.000000 41.892369 0.250000 100
20.000000 42.392369 0.250000 100
20.000000 42.892369 0.250000 100
20.000000 43.392369 0.250000 100
20.000000 43.892369 0.250000 100
20.000000 44.392369 0.250000 100
20.000000 44.892369 0.250000 100
20.000000 45.392369 0.250000 100
20.000000 45.892369 0.250000 100
20.000000 46.392369 0.250000 100
20.000000 46.892369 0.250000 100
20.000000 47.392369 0.250000 100
20.000000 47.892369 0.250000 100
20.000000 48.392369 0.250000 100
20.000000 48.892369 0.250000 100
20.000000 49.392369 0.250000 100
20.000000 49.892369 0.250000 100
20.000000 50.392369 0.250000 100
20.000000 50.892369 0.250000 100
20.000000 51.392369 0.250000 100
20.000000 51.892369 0.250000 100
20.000000 52.392369 0.250000 100
20.000000 52.892369 0.250000 100
20.000000 53.392369 0.250000 100
20.000000 53.892369 0.250000 100
20.000000 54.392369 0.250000 100
20.000000 54.892369 0.250000 100
20.000000 55.392369 0.250000 100
20.000000 55.892369 0.250000 100
20.000000 56.392369 0.250000 100
20.000000 56.892369 0.250000 100
20.000000 57.392369 0.250000 100
20.000000 57.892369 0.250000 100
20.000000 58.392369 0.250000 100
20.000000 58.892369 0.250000 100
20.000000 59.392369 0.250000 100
20.000000 59.892369 0.250000 100
20.000000 60.392369 0.250000 100
20.000000 60.892369 0.250000 100
20.000000 61.392369 0.250000 100
20.000000 61.892369 0.250000 100
20.000000 62.392369 0.250000 100
20.000000 62.892369 0.250000 100
20.000000 63.392369 0.250000 100
20.000000 63.892369 0.250000 100
20.000000 64.392369 0.250000 100
20.000000 64.892369 0.250000 100
20.000000 65.392369 0.250000 100
20.000000 65.892369 0.250000 100
20.000000 66.392369 0.250000 100
20.000000 66.892369 0.250000 100
20.000000 67.392369 0.250000 100
20.000000 67.892369 0.250000 100
20.000000 68.392369 0.250000 100
20.000000 68.892369 0.250000 100
20.000000 69.392369 0.250000 100
20.000000 69.892369 0.250000 100
19.750000 70.142369 0.250000 100
19.250000 70.142369 0.250000 100
18.750000 70.142369 0.250000 100
18.250000 70.142369 0.250000 100
17.750000 70.142369 0.250000 100
17.250000 70.142369 0.250000 100
16.750000 70.142369 0.250000 100
16.250000 70.142369 0.250000 100
15.750000 70.142369 0.250000 100
15.250000 70.142369 0.250000 100
14.750000 70.142369 0.250000 100
14.250000 70.142369 0.250000 100
13.750000 70.142369 0.250000 100
13.250000 70.142369 0.250000 100
12.750000 70.142369 0.250000 100
12.250000 70.142369 0.250000 100
11.750000 70.142369 0.250000 100
11.250000 70.142369 0.250000 100
10.750000 70.142369 0.250000 100
10.250000 70.142369 0.250000 100
9.750000 70.142369 0.250000 100
9.250000 70.142369 0.250000 100
8.750000 70.142369 0.250000 100
8.250000 70.142369 0.250000 100
7.750000 70.142369 0.250000 100
7.250000 70.142369 0.250000 100
6.750000 70.142369 0.250000 100
6.250000 70.142369 0.250000 100
5.750000 70.142369 0.250000 100
5.250000 70.142369 0.250000 100
4.750000 70.142369 0.250000 100
4.250000 70.142369 0.250000 100
3.750000 70.142369 0.250000 100
3.250000 70.142369 0.250000 100
2.750000 70.142369 0.250000 100
2.250000 70.142369 0.250000 100
1.750000 70.142369 0.250000 100
1.250000 70.142369 0.250000 100
0.750000 70.142369 0.250000 100
0.250000 70.142369 0.250000 100
554

13.896848 8.963952 0.850000 0
12.514327 27.293331 0.851500 0
11.784493 12.458452 0.853000 0
7.899995 56.958949 0.854500 0
16.934490 53.980659 0.856000 0
5.844952 4.719684 0.857500 0
3.489628 0.664989 0.859000 0
10.854356 55.563333 0.860500 0
2.771672 32.393128 0.862000 0
8.369979 42.713304 0.863500 0
18.965505 22.977021 0.865000 0
14.498092 39.765227 0.866500 0
15.795114 46.982646 0.868000 0
10.487558 51.107642 0.869500 0
3.421205 3.303483 0.871000 0
18.736375 39.025620 0.872500 0
14.067017 4.427460 0.874000 0
10.174706 -1.647835 0.875500 0
2.415067 13.846502 0.877000 0
7.058675 48.372204 0.878500 0
18.601017 48.807134 0.880000 0
12.403506 4.721434 0.881500 0
4.850179 48.036712 0.883000 0
1.060858 36.968979 0.884500 0
4.736398 43.163469 0.886000 0
18.242074 0.611660 0.887500 0
15.212266 57.514279 0.889000 0
16.907740 6.302454 0.890500 0
13.230683 44.613273 0.892000 0
8.933206 21.262543 0.893500 0
16.424988 23.973790 0.895000 0
18.956806 55.856128 0.896500 0
7.355158 1.888954 0.898000 0
18.902421 42.088454 0.899500 0
9.915253 9.610532 0.901000 0
1.642600 0.701368 0.902500 0
7.318847 3.430592 0.904000 0
16.050410 0.769445 0.905500 0
6.506345 26.003896 0.907000 0
17.743240 10.472935 0.908500 0
16.804087 31.340357 0.910000 0
17.347336 1.729758 0.911500 0
12.666560 23.630735 0.913000 0
10.121775 25.259013 0.914500 0
13.595560 12.321528 0.916000 0
14.456835 31.161938 0.917500 0
5.184247 16.290700 0.919000 0
1.021360 10.699409 0.920500 0
8.709190 36.631404 0.922000 0
8.320198 13.850493 0.923500 0
17.158999 29.297758 0.925000 0
10.161045 11.086028 0.926500 0
12.087810 0.536908 0.928000 0
13.428967 32.726677 0.929500 0
14.835755 5.626313 0.931000 0
3.154062 38.381081 0.932500 0
17.957954 11.944817 0.934000 0
3.000067 36.380374 0.935500 0
7.811286 30.145456 0.937000 0
17.985162 26.174731 0.938500 0
4.633396 13.155536 0.940000 0
5.480464 39.892938 0.941500 0
4.270702 11.745393 0.943000 0
14.673164 2.257944 0.944500 0
2.504530 50.562207 0.946000 0
10.900262 3.257085 0.947500 0
11.373807 30.948095 0.949000 0
18.263930 9.084133 0.950500 0
5.914093 35.342796 0.952000 0
11.875353 39.356666 0.953500 0
6.451900 32.384604 0.955000 0
1.603884 22.307393 0.956500 0
8.809023 45.591091 0.958000 0
11.889809 35.575239 0.959500 0
4.495221 5.677263 0.961000 0
17.598228 36.625882 0.962500 0
4.490891 29.022555 0.964000 0
15.776543 35.415029 0.965500 0
15.955772 26.541219 0.967000 0
5.665509 21.461225 0.968500 0
8.373386 6.703632 0.970000 0
7.221943 12.476353 0.971500 0
2.942217 53.495082 0.973000 0
1.599179 43.367893 0.974500 0
9.832554 18.087137 0.976000 0
16.135680 18.988160 0.977500 0
14.351398 49.455732 0.979000 0
15.944767 42.296761 0.980500 0
7.551023 5.209060 0.982000 0
5.932354 10.916089 0.983500 0
15.178789 55.333535 0.985000 0
4.768503 52.508857 0.986500 0
1.827300 55.978446 0.988000 0
0.836802 5.421803 0.989500 0
16.175637 9.295714 0.991000 0
15.566764 12.476675 0.992500 0
10.828140 14.891686 0.994000 0
3.847826 7.227499 0.995500 0
7.768191 51.932260 0.997000 0
11.237589 49.358690 0.998500 0
14.376676 52.974154 1.000000 0
10.540697 53.182461 1.001500 0
1.539927 25.402274 1.003000 0
11.913441 8.256842 1.004500 0
17.898207 15.519225 1.006000 0
1.824116 6.856138 1.007500 0
8.426182 34.072949 1.009000 0
11.518666 46.507324 1.010500 0
13.079255 17.173425 1.012000 0
6.278953 46.331517 1.013500 0
9.819746 39.334792 1.015000 0
13.166473 3.056874 1.016500 0
14.601526 20.708227 1.018000 0
1.333845 31.000899 1.019500 0
2.294380 2.029574 1.021000 0
10.393356 27.724911 1.022500 0
5.459131 19.439308 1.024000 0
1.520711 40.680933 1.025500 0
2.414979 12.479462 1.027000 0
11.544145 1.834438 1.028500 0
4.219339 24.273434 1.030000 0
12.089085 21.181252 1.031500 0
17.379569 44.390119 1.033000 0
8.233485 10.249861 1.034500 0
2.341256 46.374326 1.036000 0
5.292579 55.805732 1.037500 0
16.235524 3.077184 1.039000 0
1.354262 17.190148 1.040500 0
10.327193 42.762853 1.042000 0
9.073803 3.796658 1.043500 0
7.676207 23.243654 1.045000 0
6.557979 0.455070 1.046500 0
17.385405 20.582540 1.048000 0
17.219438 40.216505 1.049500 0
12.148802 56.997160 1.051000 0
18.746560 33.382284 1.052500 0
17.520956 17.488881 1.054000 0
8.204729 8.409011 1.055500 0
12.400250 41.565486 1.057000 0
5.365436 37.348966 1.058500 0
18.509099 4.064325 1.060000 0
9.970782 5.389501 1.061500 0
3.037382 26.988634 1.063000 0
1.075291 8.977524 1.064500 0
6.636007 54.032345 1.066000 0
13.903248 36.367051 1.067500 0
13.381938 6.583853 1.069000 0
15.093014 10.601809 1.070500 0
8.362718 16.549905 1.072000 0
10.680179 33.453854 1.073500 0
12.412785 52.252698 1.075000 0
16.494096 4.732569 1.076500 0
3.680732 41.019851 1.078000 0
2.736528 4.900904 1.079500 0
12.902799 54.782574 1.081000 0
17.830406 51.630260 1.082500 0
15.414313 14.720396 1.084000 0
9.234606 48.207571 1.085500 0
18.950655 2.486684 1.087000 0
4.626298 33.397895 1.088500 0
7.737062 40.715533 1.090000 0
12.516995 10.183389 1.091500 0
6.192349 9.065251 1.093000 0
13.161329 14.055769 1.094500 0
14.546983 28.229285 1.096000 0
6.594893 43.996228 1.097500 0
14.085856 0.735595 1.099000 0
1.206405 48.587154 1.100500 0
14.514599 25.042586 1.102000 0
5.911570 7.197016 1.103500 0
9.928238 23.078150 1.105000 0
1.073541 3.492537 1.106500 0
4.860613 50.154859 1.108000 0
3.336345 9.360127 1.109500 0
2.842705 19.050860 1.111000 0
17.379546 57.101047 1.112500 0
7.997107 27.600843 1.114000 0
4.925359 1.530830 1.115500 0
9.307159 1.073633 1.117000 0
8.721286 54.950856 1.118500 0
5.310705 3.235923 1.120000 0
4.024593 14.723807 1.121500 0
1.337919 28.633191 1.123000 0
18.802396 46.543032 1.124500 0
18.937115 5.870715 1.126000 0
10.263627 7.282941 1.127500 0
3.613158 57.555788 1.129000 0
15.757517 7.610590 1.130500 0
9.904691 57.442919 1.132000 0
15.626769 37.880926 1.133500 0
18.919950 7.715002 1.135000 0
18.853096 30.837106 1.136500 0
17.517463 13.727864 1.138000 0
1.155959 34.392910 1.139500 0
13.656736 47.279675 1.141000 0
7.721459 38.459863 1.142500 0
4.344601 45.237158 1.144000 0
7.926335 19.320338 1.145500 0
16.722482 49.646523 1.147000 0
9.143245 31.759231 1.148500 0
0.000000 69.865721 0.250000 100
0.000000 69.365721 0.250000 100
0.000000 68.865721 0.250000 100
0.000000 68.365721 0.250000 100
0.000000 67.865721 0.250000 100
0.000000 67.365721 0.250000 100
0.000000 66.865721 0.250000 100
0.000000 66.365721 0.250000 100
0.000000 65.865721 0.250000 100
0.000000 65.365721 0.250000 100
0.000000 64.865721 0.250000 100
0.000000 64.365721 0.250000 100
0.000000 63.865721 0.250000 100
0.000000 63.365721 0.250000 100
0.000000 62.865721 0.250000 100
0.000000 62.365721 0.250000 100
0.000000 61.865721 0.250000 100
0.000000 61.365721 0.250000 100
0.000000 60.865721 0.250000 100
0.000000 60.365721 0.250000 100
0.000000 59.865721 0.250000 100
0.000000 59.365721 0.250000 100
0.000000 58.865721 0.250000 100
0.000000 58.365721 0.250000 100
0.000000 57.865721 0.250000 100
0.000000 57.365721 0.250000 100
0.000000 56.865721 0.250000 100
0.000000 56.365721 0.250000 100
0.000000 55.865721 0.250000 100
0.000000 55.365721 0.250000 100
0.000000 54.865721 0.250000 100
0.000000 54.365721 0.250000 100
0.000000 53.865721 0.250000 100
0.000000 53.365721 0.250000 100
0.000000 52.865721 0.250000 100
0.000000 52.365721 0.250000 100
0.000000 51.865721 0.250000 100
0.000000 51.365721 0.250000 100
0.000000 50.865721 0.250000 100
0.000000 50.365721 0.250000 100
0.000000 49.865721 0.250000 100
0.000000 49.365721 0.250000 100
0.000000 48.865721 0.250000 100
0.000000 48.365721 0.250000 100
0.000000 47.865721 0.250000 100
0.000000 47.365721 0.250000 100
0.000000 46.865721 0.250000 100
0.000000 46.365721 0.250000 100
0.000000 45.865721 0.250000 100
0.000000 45.365721 0.250000 100
0.000000 44.865721 0.250000 100
0.000000 44.365721 0.250000 100
0.000000 43.865721 0.250000 100
0.000000 43.365721 0.250000 100
0.000000 42.865721 0.250000 100
0.000000 42.365721 0.250000 100
0.000000 41.865721 0.250000 100
0.000000 41.365721 0.250000 100
0.000000 40.865721 0.250000 100
0.000000 40.365721 0.250000 100
0.000000 39.865721 0.250000 100
0.000000 39.365721 0.250000 100
0.000000 38.865721 0.250000 100
0.000000 38.365721 0.250000 100
0.000000 37.865721 0.250000 100
0.000000 37.365721 0.250000 100
0.000000 36.865721 0.250000 100
0.000000 36.365721 0.250000 100
0.000000 35.865721 0.250000 100
0.000000 35.365721 0.250000 100
0.000000 34.865721 0.250000 100
0.000000 34.365721 0.250000 100
0.000000 33.865721 0.250000 100
0.000000 33.365721 0.250000 100
0.000000 32.865721 0.250000 100
0.000000 32.365721 0.250000 100
0.000000 31.865721 0.250000 100
0.000000 31.365721 0.250000 100
0.000000 30.865721 0.250000 100
0.000000 30.365721 0.250000 100
0.000000 29.865721 0.250000 100
0.000000 29.365721 0.250000 100
0.000000 28.865721 0.250000 100
0.000000 28.365721 0.250000 100
0.000000 27.865721 0.250000 100
0.000000 27.365721 0.250000 100
0.000000 26.865721 0.250000 100
0.000000 26.365721 0.250000 100
0.000000 25.865721 0.250000 100
0.000000 25.365721 0.250000 100
0.000000 24.865721 0.250000 100
0.000000 24.365721 0.250000 100
0.000000 23.865721 0.250000 100
0.000000 23.365721 0.250000 100
0.000000 22.865721 0.250000 100
0.000000 22.365721 0.250000 100
0.000000 21.865721 0.250000 100
0.000000 21.365721 0.250000 100
0.000000 20.865721 0.250000 100
0.000000 20.365721 0.250000 100
0.000000 19.865721 0.250000 100
0.000000 19.365721 0.250000 100
0.000000 18.865721 0.250000 100
0.000000 18.365721 0.250000 100
0.000000 17.865721 0.250000 100
0.000000 17.365721 0.250000 100
0.000000 16.865721 0.250000 100
0.000000 16.365721 0.250000 100
0.000000 15.865721 0.250000 100
0.000000 15.365721 0.250000 100
0.000000 14.865721 0.250000 100
0.000000 14.365721 0.250000 100
0.000000 13.865721 0.250000 100
0.000000 13.365721 0.250000 100
0.000000 12.865721 0.250000 100
0.000000 12.365721 0.250000 100
0.000000 11.865721 0.250000 100
0.000000 11.365721 0.250000 100
0.000000 10.865721 0.250000 100
0.000000 10.365721 0.250000 100
0.000000 9.865721 0.250000 100
0.000000 9.365721 0.250000 100
0.000000 8.865721 0.250000 100
0.000000 8.365721 0.250000 100
0.000000 7.865721 0.250000 100
0.000000 7.365721 0.250000 100
0.000000 6.865721 0.250000 100
0.000000 6.365721 0.250000 100
0.000000 5.865721 0.250000 100
0.000000 5.365721 0.250000 100
0.000000 4.865721 0.250000 100
0.000000 4.365721 0.250000 100
0.000000 3.865721 0.250000 100
0.000000 3.365721 0.250000 100
0.000000 2.865721 0.250000 100
0.000000 2.365721 0.250000 100
0.000000 1.865721 0.250000 100
0.000000 1.365721 0.250000 100
0.000000 0.865721 0.250000 100
0.000000 0.365721 0.250000 100
0.250000 0.115721 0.250000 100
0.750000 0.115721 0.250000 100
1.250000 0.115721 0.250000 100
1.750000 0.115721 0.250000 100
2.250000 0.115721 0.250000 100
2.750000 0.115721 0.250000 100
3.250000 0.115721 0.250000 100
3.750000 0.115721 0.250000 100
4.250000 0.115721 0.250000 100
4.750000 0.115721 0.250000 100
5.250000 0.115721 0.250000 100
5.750000 0.115721 0.250000 100
6.250000 0.115721 0.250000 100
6.750000 0.115721 0.250000 100
7.250000 0.115721 0.250000 100
7.750000 0.115721 0.250000 100
8.250000 0.115721 0.250000 100
11.750000 0.115721 0.250000 100
12.250000 0.115721 0.250000 100
12.750000 0.115721 0.250000 100
13.250000 0.115721 0.250000 100
13.750000 0.115721 0.250000 100
14.250000 0.115721 0.250000 100
14.750000 0.115721 0.250000 100
15.250000 0.115721 0.250000 100
15.750000 0.115721 0.250000 100
16.250000 0.115721 0.250000 100
16.750000 0.115721 0.250000 100
17.250000 0.115721 0.250000 100
17.750000 0.115721 0.250000 100
18.250000 0.115721 0.250000 100
18.750000 0.115721 0.250000 100
19.250000 0.115721 0.250000 100
19.750000 0.115721 0.250000 100
20.000000 0.365721 0.250000 100
20.000000 0.865721 0.250000 100
20.000000 1.365721 0.250000 100
20.000000 1.865721 0.250000 100
20.000000 2.365721 0.250000 100
20.000000 2.865721 0.250000 100
20.000000 3.365721 0.250000 100
20.000000 3.865721 0.250000 100
20.000000 4.365721 0.250000 100
20.000000 4.865721 0.250000 100
20.000000 5.365721 0.250000 100
20.000000 5.865721 0.250000 100
20.000000 6.365721 0.250000 100
20.000000 6.865721 0.250000 100
20.000000 7.365721 0.250000 100
20.000000 7.865721 0.250000 100
20.000000 8.365721 0.250000 100
20.000000 8.865721 0.250000 100
20.000000 9.365721 0.250000 100
20.000000 9.865721 0.250000 100
20.000000 10.365721 0.250000 100
20.000000 10.865721 0.250000 100
20.000000 11.365721 0.250000 100
20.000000 11.865721 0.250000 100
20.000000 12.365721 0.250000 100
20.000000 12.865721 0.250000 100
20.000000 13.365721 0.250000 100
20.000000 13.865721 0.250000 100
20.000000 14.365721 0.250000 100
20.000000 14.865721 0.250000 100
20.000000 15.365721 0.250000 100
20.000000 15.865721 0.250000 100
20.000000 16.365721 0.250000 100
20.000000 16.865721 0.250000 100
20.000000 17.365721 0.250000 100
20.000000 17.865721 0.250000 100
20.000000 18.365721 0.250000 100
20.000000 18.865721 0.250000 100
20.000000 19.365721 0.250000 100
20.000000 19.865721 0.250000 100
20.000000 20.365721 0.250000 100
20.000000 20.865721 0.250000 100
20.000000 21.365721 0.250000 100
20.000000 21.865721 0.250000 100
20.000000 22.365721 0.250000 100
20.000000 22.865721 0.250000 100
20.000000 23.365721 0.250000 100
20.000000 23.865721 0.250000 100
20.000000 24.365721 0.250000 100
20.000000 24.865721 0.250000 100
20.000000 25.365721 0.250000 100
20.000000 25.865721 0.250000 100
20.000000 26.365721 0.250000 100
20.000000 26.865721 0.250000 100
20.000000 27.365721 0.250000 100
20.000000 27.865721 0.250000 100
20.000000 28.365721 0.250000 100
20.000000 28.865721 0.250000 100
20.000000 29.365721 0.250000 100
20.000000 29.865721 0.250000 100
20.000000 30.365721 0.250000 100
20.000000 30.865721 0.250000 100
20.000000 31.365721 0.250000 100
20.000000 31.865721 0.250000 100
20.000000 32.365721 0.250000 100
20.000000 32.865721 0.250000 100
20.000000 33.365721 0.250000 100
20.000000 33.865721 0.250000 100
20.000000 34.365721 0.250000 100
20.000000 34.865721 0.250000 100
20.000000 35.365721 0.250000 100
20.000000 35.865721 0.250000 100
20.000000 36.365721 0.250000 100
20.000000 36.865721 0.250000 100
20.000000 37.365721 0.250000 100
20.000000 37.865721 0.250000 100
20.000000 38.365721 0.250000 100
20.000000 38.865721 0.250000 100
20.000000 39.365721 0.250000 100
20.000000 39.865721 0.250000 100
20.000000 40.365721 0.250000 100
20.000000 40.865721 0.250000 100
20.000000 41.365721 0.250000 100
20.000000 41.865721 0.250000 100
20.000000 42.365721 0.250000 100
20.000000 42.865721 0.250000 100
20.000000 43.365721 0.250000 100
20.000000 43.865721 0.250000 100
20.000000 44.365721 0.250000 100
20.000000 44.865721 0.250000 100
20.000000 45.365721 0.250000 100
20.000000 45.865721 0.250000 100
20.000000 46.365721 0.250000 100
20.000000 46.865721 0.250000 100
20.000000 47.365721 0.250000 100
20.000000 47.865721 0.250000 100
20.000000 48.365721 0.250000 100
20.000000 48.865721 0.250000 100
20.000000 49.365721 0.250000 100
20.000000 49.865721 0.250000 100
20.000000 50.365721 0.250000 100
20.000000 50.865721 0.250000 100
20.000000 51.365721 0.250000 100
20.000000 51.865721 0.250000 100
20.000000 52.365721 0.250000 100
20.000000 52.865721 0.250000 100
20.000000 53.365721 0.250000 100
20.000000 53.865721 0.250000 100
20.000000 54.365721 0.250000 100
20.000000 54.865721 0.250000 100
20.000000 55.365721 0.250000 100
20.000000 55.865721 0.250000 100
20.000000 56.365721 0.250000 100
20.000000 56.865721 0.250000 100
20.000000 57.365721 0.250000 100
20.000000 57.865721 0.250000 100
20.000000 58.365721 0.250000 100
20.000000 58.865721 0.250000 100
20.000000 59.365721 0.250000 100
20.000000 59.865721 0.250000 100
20.000000 60.365721 0.250000 100
20.000000 60.865721 0.250000 100
20.000000 61.365721 0.250000 100
20.000000 61.865721 0.250000 100
20.000000 62.365721 0.250000 100
20.000000 62.865721 0.250000 100
20.000000 63.365721 0.250000 100
20.000000 63.865721 0.250000 100
20.000000 64.365721 0.250000 100
20.000000 64.865721 0.250000 100
20.000000 65.365721 0.250000 100
20.000000 65.865721 0.250000 100
20.000000 66.365721 0.250000 100
20.000000 66.865721 0.250000 100
20.000000 67.365721 0.250000 100
20.000000 67.865721 0.250000 100
20.000000 68.365721 0.250000 100
20.000000 68.865721 0.250000 100
20.000000 69.365721 0.250000 100
20.000000 69.865721 0.250000 100
19.750000 70.115721 0.250000 100
19.250000 70.115721 0.250000 100
18.750000 70.115721 0.250000 100
18.250000 70.115721 0.250000 100
17.750000 70.115721 0.250000 100
17.250000 70.115721 0.250000 100
16.750000 70.115721 0.250000 100
16.250000 70.115721 0.250000 100
15.750000 70.115721 0.250000 100
15.250000 70.115721 0.250000 100
14.750000 70.115721 0.250000 100
14.250000 70.115721 0.250000 100
13.750000 70.115721 0.250000 100
13.250000 70.115721 0.250000 100
12.750000 70.115721 0.250000 100
12.250000 70.115721 0.250000 100
11.750000 70.115721 0.250000 100
11.250000 70.115721 0.250000 100
10.750000 70.115721 0.250000 100
10.250000 70.115721 0.250000 100
9.750000 70.115721 0.250000 100
9.250000 70.115721 0.250000 100
8.750000 70.115721 0.250000 100
8.250000 70.115721 0.250000 100
7.750000 70.115721 0.250000 100
7.250000 70.115721 0.250000 100
6.750000 70.115721 0.250000 100
6.250000 70.115721 0.250000 100
5.750000 70.115721 0.250000 100
5.250000 70.115721 0.250000 100
4.750000 70.115721 0.250000 100
4.250000 70.115721 0.250000 100
3.750000 70.115721 0.250000 100
3.250000 70.115721 0.250000 100
2.750000 70.115721 0.250000 100
2.250000 70.115721 0.250000 100
1.750000 70.115721 0.250000 100
1.250000 70.115721 0.250000 100
0.750000 70.115721 0.250000 100
0.250000 70.115721 0.250000 100
554

14.060050 8.545035 0.850000 0
12.514327 26.201269 0.851500 0
11.810974 11.459018 0.853000 0
7.899995 55.866886 0.854500 0
16.934490 52.888596 0.856000 0
5.898366 4.779939 0.857500 0
3.469240 0.709631 0.859000 0
10.854356 54.471271 0.860500 0
2.771672 31.301066 0.862000 0
8.369979 41.621242 0.863500 0
18.965505 21.884959 0.865000 0
14.498092 38.673165 0.866500 0
15.795114 45.890583 0.868000 0
10.487558 50.015580 0.869500 0
3.484739 3.384353 0.871000 0
18.736375 37.933558 0.872500 0
14.061703 4.354367 0.874000 0
10.160089 -2.139985 0.875500 0
2.574753 13.678997 0.877000 0
7.058675 47.280142 0.878500 0
18.601017 47.715071 0.880000 0
12.351316 4.699849 0.881500 0
4.850179 46.944650 0.883000 0
1.060858 35.876917 0.884500 0
4.736398 42.071407 0.886000 0
18.263488 0.601986 0.887500 0
15.212266 56.422216 0.889000 0
16.883138 6.002621 0.890500 0
13.230683 43.521210 0.892000 0
8.933206 20.170481 0.893500 0
16.424988 22.881728 0.895000 0
18.956806 54.764065 0.896500 0
7.366433 1.976673 0.898000 0
18.902421 40.996391 0.899500 0
10.012059 8.957007 0.901000 0
1.611226 0.629676 0.902500 0
7.316263 3.521652 0.904000 0
16.029894 0.814174 0.905500 0
6.506345 24.911834 0.907000 0
17.753750 10.128822 0.908500 0
16.804087 30.248294 0.910000 0
17.335748 1.740169 0.911500 0
12.666560 22.538672 0.913000 0
10.121775 24.166950 0.914500 0
13.636606 11.497085 0.916000 0
14.456835 30.069876 0.917500 0
5.085606 15.737625 0.919000 0
0.892721 10.407098 0.920500 0
8.709190 35.539342 0.922000 0
8.207168 13.308994 0.923500 0
17.158999 28.205695 0.925000 0
10.294185 10.669905 0.926500 0
12.108636 0.600507 0.928000 0
13.428967 31.634614 0.929500 0
14.928212 5.642376 0.931000 0
3.154062 37.289018 0.932500 0
17.968817 11.528645 0.934000 0
3.000067 35.288311 0.935500 0
7.811286 29.053393 0.937000 0
17.985162 25.082669 0.938500 0
4.784564 12.842474 0.940000 0
5.480464 38.800876 0.941500 0
4.280597 11.056179 0.943000 0
14.668043 2.256826 0.944500 0
2.504530 49.470144 0.946000 0
10.839404 3.487438 0.947500 0
11.373807 29.856033 0.949000 0
18.208687 8.944328 0.950500 0
5.914093 34.250734 0.952000 0
11.875353 38.264604 0.953500 0
6.451900 31.292542 0.955000 0
1.603884 21.215330 0.956500 0
8.809023 44.499028 0.958000 0
11.889809 34.483176 0.959500 0
4.612078 5.621812 0.961000 0
17.598228 35.533819 0.962500 0
4.490891 27.930493 0.964000 0
15.776543 34.322967 0.965500 0
15.955939 25.449332 0.967000 0
5.665509 20.369163 0.968500 0
8.335767 6.542811 0.970000 0
7.100202 11.946031 0.971500 0
2.942217 52.403020 0.973000 0
1.599179 42.275831 0.974500 0
9.832554 16.995074 0.976000 0
16.161130 17.935949 0.977500 0
14.351398 48.363670 0.979000 0
15.944767 41.204699 0.980500 0
7.559833 5.168097 0.982000 0
5.934729 10.421402 0.983500 0
15.178789 54.241473 0.985000 0
4.768503 51.416794 0.986500 0
1.827300 54.886383 0.988000 0
0.828971 5.450844 0.989500 0
16.213921 8.970525 0.991000 0
15.524946 12.325107 0.992500 0
10.828140 13.799624 0.994000 0
3.976969 7.077461 0.995500 0
7.768191 50.840197 0.997000 0
11.237589 48.266627 0.998500 0
14.376676 51.882092 1.000000 0
10.540697 52.090399 1.001500 0
1.539927 24.310212 1.003000 0
11.870944 8.121377 1.004500 0
17.963252 15.062731 1.006000 0
1.925144 7.074885 1.007500 0
8.426182 32.980886 1.009000 0
11.518666 45.415261 1.010500 0
13.079255 16.081363 1.012000 0
6.278953 45.239455 1.013500 0
9.819746 38.242729 1.015000 0
13.125966 3.030147 1.016500 0
14.601526 19.616164 1.018000 0
1.333845 29.908837 1.019500 0
2.327585 2.088569 1.021000 0
10.393356 26.632848 1.022500 0
5.459131 18.347245 1.024000 0
1.520711 39.588871 1.025500 0
2.609542 11.604671 1.027000 0
11.532439 1.966955 1.028500 0
4.219339 23.181371 1.030000 0
12.089085 20.089189 1.031500 0
17.379569 43.298057 1.033000 0
8.195057 9.946170 1.034500 0
2.341256 45.282264 1.036000 0
5.292579 54.713669 1.037500 0
16.257267 3.048196 1.039000 0
1.354262 16.098086 1.040500 0
10.327193 41.670791 1.042000 0
9.112754 3.883542 1.043500 0
7.676207 22.151592 1.045000 0
6.562170 0.565687 1.046500 0
17.385706 19.491304 1.048000 0
17.219438 39.124442 1.049500 0
12.148802 55.905097 1.051000 0
18.746560 32.290222 1.052500 0
17.620945 16.689186 1.054000 0
8.177934 8.109691 1.055500 0
12.400250 40.473423 1.057000 0
5.365436 36.256904 1.058500 0
18.481768 4.105790 1.060000 0
9.976627 5.380018 1.061500 0
3.037382 25.896572 1.063000 0
0.960779 8.735028 1.064500 0
6.636007 52.940283 1.066000 0
13.903248 35.274989 1.067500 0
13.321037 6.695022 1.069000 0
14.959604 10.415875 1.070500 0
8.362718 15.457842 1.072000 0
10.680179 32.361792 1.073500 0
12.412785 51.160636 1.075000 0
16.539172 4.729972 1.076500 0
3.680732 39.927788 1.078000 0
2.807956 4.925554 1.079500 0
12.902799 53.690511 1.081000 0
17.830406 50.538197 1.082500 0
15.402312 13.872081 1.084000 0
9.234606 47.115509 1.085500 0
18.966649 2.422078 1.087000 0
4.626298 32.305832 1.088500 0
7.737062 39.623470 1.090000 0
12.358131 9.980933 1.091500 0
6.195108 8.736740 1.093000 0
13.048234 13.469350 1.094500 0
14.546983 27.137222 1.096000 0
6.594893 42.904165 1.097500 0
14.082851 0.791236 1.099000 0
1.206405 47.495091 1.100500 0
14.514265 23.950173 1.102000 0
5.933240 6.925127 1.103500 0
9.928238 21.986088 1.105000 0
1.062942 3.561567 1.106500 0
4.860613 49.062796 1.108000 0
3.453056 9.409694 1.109500 0
2.842705 17.958797 1.111000 0
17.379546 56.008984 1.112500 0
7.997107 26.508781 1.114000 0
4.961121 1.586195 1.115500 0
9.409791 1.184999 1.117000 0
8.721286 53.858794 1.118500 0
5.371165 3.350085 1.120000 0
4.133638 14.514643 1.121500 0
1.337919 27.541129 1.123000 0
18.802396 45.450969 1.124500 0
18.897990 5.794489 1.126000 0
10.252417 7.179265 1.127500 0
3.613158 56.463726 1.129000 0
15.755729 7.236562 1.130500 0
9.904691 56.350857 1.132000 0
15.626769 36.788863 1.133500 0
18.889827 7.552698 1.135000 0
18.853096 29.745043 1.136500 0
17.549127 13.171958 1.138000 0
1.155959 33.300848 1.139500 0
13.656736 46.187612 1.141000 0
7.721459 37.367800 1.142500 0
4.344601 44.145095 1.144000 0
7.926335 18.228275 1.145500 0
16.722482 48.554460 1.147000 0
9.143245 30.667168 1.148500 0
0.000000 69.730726 0.250000 100
0.000000 69.230726 0.250000 100
0.000000 68.730726 0.250000 100
0.000000 68.230726 0.250000 100
0.000000 67.730726 0.250000 100
0.000000 67.230726 0.250000 100
0.000000 66.730726 0.250000 100
0.000000 66.230726 0.250000 100
0.000000 65.730726 0.250000 100
0.000000 65.230726 0.250000 100
0.000000 64.730726 0.250000 100
